ply
format ascii 1.0
element vertex 723
property float x
property float y
property float z
property float nx
property float ny
property float nz
property uchar red
property uchar green
property uchar blue
element face 0
property list int uint vertex_indices
end_header
-0.703864 0.136509 0.697094 -0.703864 0.136509 0.697094 255 0 0 
-0.544053 -0.192954 -0.816563 -0.544053 -0.192954 -0.816563 255 0 0 
0.631391 0.444615 0.635345 0.631391 0.444615 0.635345 0 0 255 
-0.891152 -0.190643 -0.411708 -0.891152 -0.190643 -0.411708 255 0 0 
0.2614 -0.741919 -0.617435 0.2614 -0.741919 -0.617435 0 255 0 
-0.00782282 0.978356 -0.206782 -0.00782282 0.978356 -0.206782 0 255 0 
0.902369 0.181608 0.39083 0.902369 0.181608 0.39083 0 0 255 
0.433145 0.812243 -0.3907 0.433145 0.812243 -0.3907 0 0 255 
0.906723 0.205724 -0.368146 0.906723 0.205724 -0.368146 0 0 255 
0.167603 -0.795174 -0.582759 0.167603 -0.795174 -0.582759 0 255 0 
0.067411 -0.147609 -0.986746 0.067411 -0.147609 -0.986746 0 255 0 
0.0558747 -0.582885 -0.810631 0.0558747 -0.582885 -0.810631 0 255 0 
0.287847 0.654788 -0.698853 0.287847 0.654788 -0.698853 0 255 0 
0.9265 -0.0871963 0.366052 0.9265 -0.0871963 0.366052 0 0 255 
-0.806606 0.325268 0.493547 -0.806606 0.325268 0.493547 255 0 0 
0.133549 0.818277 -0.559096 0.133549 0.818277 -0.559096 0 255 0 
0.742161 -0.649912 -0.163742 0.742161 -0.649912 -0.163742 0 0 255 
-0.659984 0.145813 0.736993 -0.659984 0.145813 0.736993 255 0 0 
0.324188 -0.935422 -0.141023 0.324188 -0.935422 -0.141023 0 255 0 
-0.513624 -0.8529 0.0935551 -0.513624 -0.8529 0.0935551 255 0 0 
0.87713 0.288085 -0.384253 0.87713 0.288085 -0.384253 0 0 255 
-0.173617 -0.703735 -0.688923 -0.173617 -0.703735 -0.688923 0 255 0 
0.276655 -0.960942 0.00723617 0.276655 -0.960942 0.00723617 0 255 0 
-0.46192 0.445234 0.76707 -0.46192 0.445234 0.76707 255 0 0 
0.394254 0.917613 0.0505029 0.394254 0.917613 0.0505029 0 0 255 
0.134546 0.636299 -0.759619 0.134546 0.636299 -0.759619 0 255 0 
-0.393982 -0.893533 0.215352 -0.393982 -0.893533 0.215352 255 0 0 
0.600887 -0.239406 -0.76264 0.600887 -0.239406 -0.76264 0 0 255 
0.945037 0.260301 0.197859 0.945037 0.260301 0.197859 0 0 255 
-0.345649 0.623987 -0.700833 -0.345649 0.623987 -0.700833 255 0 0 
-0.860468 -0.0499939 0.507046 -0.860468 -0.0499939 0.507046 255 0 0 
0.418331 0.623817 -0.660191 0.418331 0.623817 -0.660191 0 0 255 
-0.442051 0.781851 -0.439659 -0.442051 0.781851 -0.439659 255 0 0 
0.00477039 0.126826 0.991913 0.00477039 0.126826 0.991913 0 255 0 
-0.765972 -0.335546 -0.548358 -0.765972 -0.335546 -0.548358 255 0 0 
-0.23339 -0.784815 -0.574103 -0.23339 -0.784815 -0.574103 0 255 0 
0.424946 0.680707 -0.596706 0.424946 0.680707 -0.596706 0 0 255 
-0.888706 -0.438842 0.132738 -0.888706 -0.438842 0.132738 255 0 0 
-0.271063 0.0818951 -0.959071 -0.271063 0.0818951 -0.959071 0 255 0 
-0.172178 0.497962 -0.849935 -0.172178 0.497962 -0.849935 0 255 0 
0.929037 0.369639 -0.0160464 0.929037 0.369639 -0.0160464 0 0 255 
-0.518474 -0.332391 -0.787846 -0.518474 -0.332391 -0.787846 255 0 0 
0.884226 -0.221976 0.410938 0.884226 -0.221976 0.410938 0 0 255 
0.360319 -0.102046 -0.927231 0.360319 -0.102046 -0.927231 0 0 255 
0.654829 -0.745672 -0.123179 0.654829 -0.745672 -0.123179 0 0 255 
0.0824957 0.711821 -0.6975 0.0824957 0.711821 -0.6975 0 255 0 
-0.623937 0.595995 0.505463 -0.623937 0.595995 0.505463 255 0 0 
0.217784 -0.00991173 -0.975947 0.217784 -0.00991173 -0.975947 0 255 0 
0.397507 0.0957401 0.912591 0.397507 0.0957401 0.912591 0 0 255 
-0.142698 0.684894 -0.714533 -0.142698 0.684894 -0.714533 0 255 0 
0.695933 -0.39505 0.599678 0.695933 -0.39505 0.599678 0 0 255 
-0.65328 0.598585 0.463596 -0.65328 0.598585 0.463596 255 0 0 
0.19027 0.981672 0.0108119 0.19027 0.981672 0.0108119 0 255 0 
-0.049615 0.794842 0.604785 -0.049615 0.794842 0.604785 0 255 0 
-0.603863 -0.108748 0.789635 -0.603863 -0.108748 0.789635 255 0 0 
-0.172498 0.984497 0.0317871 -0.172498 0.984497 0.0317871 0 255 0 
0.324522 0.903 -0.28156 0.324522 0.903 -0.28156 0 255 0 
0.826225 -0.544482 0.144538 0.826225 -0.544482 0.144538 0 0 255 
0.514042 -0.813043 -0.273351 0.514042 -0.813043 -0.273351 0 0 255 
0.436592 0.267233 0.859054 0.436592 0.267233 0.859054 0 0 255 
-0.892276 -0.252957 0.373973 -0.892276 -0.252957 0.373973 255 0 0 
0.716165 0.630368 -0.299571 0.716165 0.630368 -0.299571 0 0 255 
0.751294 0.633564 -0.184809 0.751294 0.633564 -0.184809 0 0 255 
-0.726541 0.625454 -0.284509 -0.726541 0.625454 -0.284509 255 0 0 
0.523539 0.430113 0.735465 0.523539 0.430113 0.735465 0 0 255 
0.0806517 -0.740054 0.667694 0.0806517 -0.740054 0.667694 0 255 0 
0.747163 -0.660663 0.0726096 0.747163 -0.660663 0.0726096 0 0 255 
0.0337654 -0.992436 0.118032 0.0337654 -0.992436 0.118032 0 255 0 
0.781434 0.101468 -0.615683 0.781434 0.101468 -0.615683 0 0 255 
0.496165 0.368536 0.786131 0.496165 0.368536 0.786131 0 0 255 
0.866187 0.468023 0.175145 0.866187 0.468023 0.175145 0 0 255 
-0.192181 -0.969216 0.153903 -0.192181 -0.969216 0.153903 0 255 0 
-0.606761 -0.518275 0.602688 -0.606761 -0.518275 0.602688 255 0 0 
0.714895 0.287124 -0.637562 0.714895 0.287124 -0.637562 0 0 255 
0.158523 -0.522198 -0.837961 0.158523 -0.522198 -0.837961 0 255 0 
0.218553 0.962189 0.162561 0.218553 0.962189 0.162561 0 255 0 
-0.950841 0.274291 -0.143758 -0.950841 0.274291 -0.143758 255 0 0 
-0.82381 0.288524 -0.487946 -0.82381 0.288524 -0.487946 255 0 0 
-0.615364 -0.230038 -0.753929 -0.615364 -0.230038 -0.753929 255 0 0 
0.475707 0.535412 -0.69788 0.475707 0.535412 -0.69788 0 0 255 
-0.0380743 0.163391 0.985826 -0.0380743 0.163391 0.985826 0 255 0 
0.797912 -0.543523 -0.260614 0.797912 -0.543523 -0.260614 0 0 255 
0.158937 -0.803013 0.574377 0.158937 -0.803013 0.574377 0 255 0 
-0.0976991 0.678223 -0.728333 -0.0976991 0.678223 -0.728333 0 255 0 
0.306242 0.750793 0.585257 0.306242 0.750793 0.585257 0 255 0 
-0.929562 0.178802 0.322403 -0.929562 0.178802 0.322403 255 0 0 
-0.329699 0.279892 0.901642 -0.329699 0.279892 0.901642 0 255 0 
0.117074 0.907506 -0.403394 0.117074 0.907506 -0.403394 0 255 0 
0.221307 0.938264 0.265865 0.221307 0.938264 0.265865 0 255 0 
-0.469945 -0.14244 0.871127 -0.469945 -0.14244 0.871127 255 0 0 
-0.263133 -0.862266 0.432733 -0.263133 -0.862266 0.432733 0 255 0 
-0.927303 -0.220465 0.302496 -0.927303 -0.220465 0.302496 255 0 0 
-0.941144 0.239036 -0.238975 -0.941144 0.239036 -0.238975 255 0 0 
0.531165 -0.134634 0.836503 0.531165 -0.134634 0.836503 0 0 255 
-0.556904 0.396668 -0.729734 -0.556904 0.396668 -0.729734 255 0 0 
-0.176625 -0.979976 0.0919269 -0.176625 -0.979976 0.0919269 0 255 0 
-0.726985 0.678569 0.105062 -0.726985 0.678569 0.105062 255 0 0 
-0.582025 0.234349 0.77867 -0.582025 0.234349 0.77867 255 0 0 
0.64732 0.42948 -0.629701 0.64732 0.42948 -0.629701 0 0 255 
-0.5011 0.823802 -0.265044 -0.5011 0.823802 -0.265044 255 0 0 
-0.931322 -0.0366541 0.362348 -0.931322 -0.0366541 0.362348 255 0 0 
0.824769 -0.527148 -0.204625 0.824769 -0.527148 -0.204625 0 0 255 
-0.560754 -0.807866 0.181406 -0.560754 -0.807866 0.181406 255 0 0 
0.0812563 -0.601095 0.795036 0.0812563 -0.601095 0.795036 0 255 0 
0.833599 -0.300595 -0.463417 0.833599 -0.300595 -0.463417 0 0 255 
0.813325 0.129963 0.567109 0.813325 0.129963 0.567109 0 0 255 
0.997926 0.0422004 -0.0486018 0.997926 0.0422004 -0.0486018 0 0 255 
0.711664 -0.546283 -0.441712 0.711664 -0.546283 -0.441712 0 0 255 
-0.818557 -0.145903 -0.555587 -0.818557 -0.145903 -0.555587 255 0 0 
-0.87116 0.286215 0.39895 -0.87116 0.286215 0.39895 255 0 0 
0.632265 0.760787 -0.146442 0.632265 0.760787 -0.146442 0 0 255 
-0.241473 -0.903287 -0.354631 -0.241473 -0.903287 -0.354631 0 255 0 
0.667291 0.691032 0.277844 0.667291 0.691032 0.277844 0 0 255 
0.368412 0.781592 0.503375 0.368412 0.781592 0.503375 0 0 255 
-0.0916217 0.105765 -0.990161 -0.0916217 0.105765 -0.990161 0 255 0 
-0.222357 0.705078 -0.673367 -0.222357 0.705078 -0.673367 0 255 0 
0.0103064 -0.970156 -0.242261 0.0103064 -0.970156 -0.242261 0 255 0 
0.535599 0.826683 0.172422 0.535599 0.826683 0.172422 0 0 255 
-0.125996 0.265821 0.955753 -0.125996 0.265821 0.955753 0 255 0 
0.338242 0.125618 -0.932638 0.338242 0.125618 -0.932638 0 0 255 
0.200688 0.699769 -0.6856 0.200688 0.699769 -0.6856 0 255 0 
0.0424747 -0.988188 -0.147245 0.0424747 -0.988188 -0.147245 0 255 0 
-0.787408 -0.0261475 -0.615878 -0.787408 -0.0261475 -0.615878 255 0 0 
0.630458 0.601444 -0.490701 0.630458 0.601444 -0.490701 0 0 255 
0.741966 -0.267755 0.614649 0.741966 -0.267755 0.614649 0 0 255 
-0.2961 0.925691 0.235415 -0.2961 0.925691 0.235415 0 255 0 
0.355023 0.505589 0.786345 0.355023 0.505589 0.786345 0 0 255 
-0.702354 -0.708968 0.0637458 -0.702354 -0.708968 0.0637458 255 0 0 
0.939978 0.333736 0.0711441 0.939978 0.333736 0.0711441 0 0 255 
-0.919531 0.392876 -0.0105453 -0.919531 0.392876 -0.0105453 255 0 0 
0.301904 -0.943776 0.134688 0.301904 -0.943776 0.134688 0 255 0 
0.908928 -0.198417 -0.366716 0.908928 -0.198417 -0.366716 0 0 255 
-0.75962 -0.650325 0.00742657 -0.75962 -0.650325 0.00742657 255 0 0 
-0.44296 0.883419 0.152828 -0.44296 0.883419 0.152828 255 0 0 
0.24817 -0.522226 0.815899 0.24817 -0.522226 0.815899 0 255 0 
-0.230142 -0.643573 -0.729965 -0.230142 -0.643573 -0.729965 0 255 0 
-0.811234 -0.260293 -0.52359 -0.811234 -0.260293 -0.52359 255 0 0 
0.949873 -0.0505165 0.308528 0.949873 -0.0505165 0.308528 0 0 255 
-0.282248 0.930219 -0.234583 -0.282248 0.930219 -0.234583 0 255 0 
-0.758157 -0.556353 0.3401 -0.758157 -0.556353 0.3401 255 0 0 
-0.690388 -0.256397 -0.67648 -0.690388 -0.256397 -0.67648 255 0 0 
-0.96961 -0.081291 -0.230756 -0.96961 -0.081291 -0.230756 255 0 0 
0.809022 -0.570162 0.142827 0.809022 -0.570162 0.142827 0 0 255 
0.537994 -0.575236 -0.61617 0.537994 -0.575236 -0.61617 0 0 255 
-0.705522 0.095338 -0.702246 -0.705522 0.095338 -0.702246 255 0 0 
0.720888 -0.533352 -0.442555 0.720888 -0.533352 -0.442555 0 0 255 
0.311846 -0.936816 -0.158518 0.311846 -0.936816 -0.158518 0 255 0 
-0.311057 -0.946756 0.0830497 -0.311057 -0.946756 0.0830497 0 255 0 
-0.0695899 -0.762729 -0.642964 -0.0695899 -0.762729 -0.642964 0 255 0 
0.900413 -0.433848 -0.0321342 0.900413 -0.433848 -0.0321342 0 0 255 
-0.446552 -0.0218539 -0.894491 -0.446552 -0.0218539 -0.894491 255 0 0 
-0.296066 0.259292 0.9193 -0.296066 0.259292 0.9193 0 255 0 
-0.0420755 -0.922784 -0.383013 -0.0420755 -0.922784 -0.383013 0 255 0 
-0.323343 0.290924 0.900451 -0.323343 0.290924 0.900451 0 255 0 
-0.32886 0.854701 0.401669 -0.32886 0.854701 0.401669 0 255 0 
-0.929138 -0.355896 0.100205 -0.929138 -0.355896 0.100205 255 0 0 
-0.232768 -0.960731 -0.151046 -0.232768 -0.960731 -0.151046 0 255 0 
-0.367744 0.919352 -0.139846 -0.367744 0.919352 -0.139846 255 0 0 
-0.655225 -0.659487 -0.368453 -0.655225 -0.659487 -0.368453 255 0 0 
0.427982 0.839191 -0.335545 0.427982 0.839191 -0.335545 0 0 255 
-0.228727 0.405868 0.884848 -0.228727 0.405868 0.884848 0 255 0 
-0.555036 -0.654816 0.512982 -0.555036 -0.654816 0.512982 255 0 0 
0.703404 0.36378 -0.610644 0.703404 0.36378 -0.610644 0 0 255 
-0.290891 -0.0242318 -0.956449 -0.290891 -0.0242318 -0.956449 0 255 0 
-0.463785 -0.715382 0.522621 -0.463785 -0.715382 0.522621 255 0 0 
0.072711 -0.997163 0.0194825 0.072711 -0.997163 0.0194825 0 255 0 
-0.84647 -0.36408 -0.388502 -0.84647 -0.36408 -0.388502 255 0 0 
0.0674555 -0.481478 0.873858 0.0674555 -0.481478 0.873858 0 255 0 
0.394021 -0.298688 0.869214 0.394021 -0.298688 0.869214 0 0 255 
0.991551 -0.116577 -0.0568924 0.991551 -0.116577 -0.0568924 0 0 255 
-0.57128 0.0845415 0.816389 -0.57128 0.0845415 0.816389 255 0 0 
-0.763603 0.502119 -0.40594 -0.763603 0.502119 -0.40594 255 0 0 
-0.799265 -0.548922 -0.244664 -0.799265 -0.548922 -0.244664 255 0 0 
0.951667 -0.140229 -0.273251 0.951667 -0.140229 -0.273251 0 0 255 
-0.888455 -0.37623 -0.262866 -0.888455 -0.37623 -0.262866 255 0 0 
0.0769273 -0.932895 -0.351836 0.0769273 -0.932895 -0.351836 0 255 0 
-0.655931 -0.749019 0.093408 -0.655931 -0.749019 0.093408 255 0 0 
0.0607527 0.604959 -0.793935 0.0607527 0.604959 -0.793935 0 255 0 
-0.682741 -0.0608795 0.72812 -0.682741 -0.0608795 0.72812 255 0 0 
0.635203 0.357423 0.684665 0.635203 0.357423 0.684665 0 0 255 
0.526397 0.553382 -0.645504 0.526397 0.553382 -0.645504 0 0 255 
-0.859652 -0.0666593 -0.506513 -0.859652 -0.0666593 -0.506513 255 0 0 
0.603565 0.113596 -0.78918 0.603565 0.113596 -0.78918 0 0 255 
0.676819 -0.274088 0.683221 0.676819 -0.274088 0.683221 0 0 255 
0.710777 0.125957 0.692048 0.710777 0.125957 0.692048 0 0 255 
0.683992 0.484255 -0.545576 0.683992 0.484255 -0.545576 0 0 255 
0.966135 0.144487 -0.213791 0.966135 0.144487 -0.213791 0 0 255 
-0.483896 -0.764365 0.426135 -0.483896 -0.764365 0.426135 255 0 0 
-0.293721 -0.517318 0.80381 -0.293721 -0.517318 0.80381 0 255 0 
-0.468938 -0.867292 0.167038 -0.468938 -0.867292 0.167038 255 0 0 
0.485449 -0.863838 0.13462 0.485449 -0.863838 0.13462 0 0 255 
0.453252 0.89088 -0.0299327 0.453252 0.89088 -0.0299327 0 0 255 
0.775821 0.62851 0.0554712 0.775821 0.62851 0.0554712 0 0 255 
-0.45264 0.565313 0.689593 -0.45264 0.565313 0.689593 255 0 0 
-0.694948 0.0526086 0.717133 -0.694948 0.0526086 0.717133 255 0 0 
-0.874844 -0.406441 -0.263541 -0.874844 -0.406441 -0.263541 255 0 0 
0.109443 0.406968 -0.906862 0.109443 0.406968 -0.906862 0 255 0 
-0.630568 -0.0769869 0.772306 -0.630568 -0.0769869 0.772306 255 0 0 
-0.343131 -0.206233 0.916367 -0.343131 -0.206233 0.916367 255 0 0 
-0.975777 0.169476 0.138334 -0.975777 0.169476 0.138334 255 0 0 
0.969791 -0.0021458 -0.243929 0.969791 -0.0021458 -0.243929 0 0 255 
0.779649 -0.43289 -0.452497 0.779649 -0.43289 -0.452497 0 0 255 
-0.899738 0.192084 0.391888 -0.899738 0.192084 0.391888 255 0 0 
-0.677947 -0.726723 0.110727 -0.677947 -0.726723 0.110727 255 0 0 
-0.511643 0.150775 -0.845865 -0.511643 0.150775 -0.845865 255 0 0 
-0.443264 0.159278 0.882127 -0.443264 0.159278 0.882127 255 0 0 
-0.371139 -0.676369 0.636224 -0.371139 -0.676369 0.636224 255 0 0 
0.187103 0.748186 0.636561 0.187103 0.748186 0.636561 0 255 0 
-0.0499643 0.0885487 -0.994818 -0.0499643 0.0885487 -0.994818 0 255 0 
-0.691521 0.688695 0.217938 -0.691521 0.688695 0.217938 255 0 0 
-0.843787 0.45936 -0.277509 -0.843787 0.45936 -0.277509 255 0 0 
-0.00309887 0.0599455 0.998197 -0.00309887 0.0599455 0.998197 0 255 0 
-0.113 0.811161 -0.573802 -0.113 0.811161 -0.573802 0 255 0 
0.570287 -0.242067 0.784969 0.570287 -0.242067 0.784969 0 0 255 
0.410929 -0.388518 -0.824737 0.410929 -0.388518 -0.824737 0 0 255 
0.0583465 0.0180619 -0.998133 0.0583465 0.0180619 -0.998133 0 255 0 
-0.975436 0.00296781 0.220265 -0.975436 0.00296781 0.220265 255 0 0 
0.72009 0.384944 0.577311 0.72009 0.384944 0.577311 0 0 255 
-0.41516 0.326271 0.849229 -0.41516 0.326271 0.849229 255 0 0 
0.873149 0.487255 0.013884 0.873149 0.487255 0.013884 0 0 255 
0.357769 0.552091 0.753125 0.357769 0.552091 0.753125 0 0 255 
0.0203962 -0.550893 0.834327 0.0203962 -0.550893 0.834327 0 255 0 
0.704047 -0.309413 0.639204 0.704047 -0.309413 0.639204 0 0 255 
0.217823 0.6976 0.682574 0.217823 0.6976 0.682574 0 255 0 
0.96669 0.255784 0.00924076 0.96669 0.255784 0.00924076 0 0 255 
0.485589 -0.294998 -0.822909 0.485589 -0.294998 -0.822909 0 0 255 
0.769831 -0.628074 0.113509 0.769831 -0.628074 0.113509 0 0 255 
0.0665347 0.38834 -0.919111 0.0665347 0.38834 -0.919111 0 255 0 
-0.0171915 -0.745905 0.66583 -0.0171915 -0.745905 0.66583 0 255 0 
-0.32461 -0.840713 0.433393 -0.32461 -0.840713 0.433393 0 255 0 
0.161354 -0.255797 -0.95317 0.161354 -0.255797 -0.95317 0 255 0 
0.195356 -0.118715 -0.973521 0.195356 -0.118715 -0.973521 0 255 0 
0.410534 0.334761 -0.848173 0.410534 0.334761 -0.848173 0 0 255 
0.663373 -0.225878 0.713383 0.663373 -0.225878 0.713383 0 0 255 
0.177823 0.849968 -0.495916 0.177823 0.849968 -0.495916 0 255 0 
0.545879 0.698985 0.461991 0.545879 0.698985 0.461991 0 0 255 
-0.630295 0.77533 -0.0399066 -0.630295 0.77533 -0.0399066 255 0 0 
0.754788 0.620651 -0.212337 0.754788 0.620651 -0.212337 0 0 255 
-0.43476 0.567176 -0.699496 -0.43476 0.567176 -0.699496 255 0 0 
-0.0549991 -0.463384 0.884449 -0.0549991 -0.463384 0.884449 0 255 0 
0.283592 0.871687 -0.399671 0.283592 0.871687 -0.399671 0 255 0 
0.41215 -0.400886 -0.818183 0.41215 -0.400886 -0.818183 0 0 255 
0.808671 -0.146101 -0.56983 0.808671 -0.146101 -0.56983 0 0 255 
0.441203 0.644319 0.624654 0.441203 0.644319 0.624654 0 0 255 
0.852944 -0.105734 0.511182 0.852944 -0.105734 0.511182 0 0 255 
0.527823 0.821019 0.217557 0.527823 0.821019 0.217557 0 0 255 
-0.929444 -0.0966519 0.356078 -0.929444 -0.0966519 0.356078 255 0 0 
-0.668979 0.0795742 0.739009 -0.668979 0.0795742 0.739009 255 0 0 
-0.987695 -0.136005 -0.0772027 -0.987695 -0.136005 -0.0772027 255 0 0 
0.27739 0.503385 0.818327 0.27739 0.503385 0.818327 0 255 0 
-0.320243 -0.565984 0.759675 -0.320243 -0.565984 0.759675 0 255 0 
0.0456265 -0.993728 0.102096 0.0456265 -0.993728 0.102096 0 255 0 
0.472936 -0.301444 0.827927 0.472936 -0.301444 0.827927 0 0 255 
0.632595 0.774322 -0.0157914 0.632595 0.774322 -0.0157914 0 0 255 
-0.29932 -0.567391 0.767121 -0.29932 -0.567391 0.767121 0 255 0 
-0.942098 -0.0500779 -0.331579 -0.942098 -0.0500779 -0.331579 255 0 0 
0.580138 0.674085 -0.45722 0.580138 0.674085 -0.45722 0 0 255 
-0.43603 0.525039 -0.730898 -0.43603 0.525039 -0.730898 255 0 0 
0.429487 -0.887502 0.166976 0.429487 -0.887502 0.166976 0 0 255 
0.648436 -0.0549414 -0.759284 0.648436 -0.0549414 -0.759284 0 0 255 
0.809709 -0.431866 -0.397321 0.809709 -0.431866 -0.397321 0 0 255 
-0.310955 -0.933694 0.177546 -0.310955 -0.933694 0.177546 0 255 0 
0.243198 0.33745 0.909386 0.243198 0.33745 0.909386 0 255 0 
-0.638948 0.274705 0.718528 -0.638948 0.274705 0.718528 255 0 0 
-0.465536 0.0610775 0.882919 -0.465536 0.0610775 0.882919 255 0 0 
0.98886 0.0243494 -0.146843 0.98886 0.0243494 -0.146843 0 0 255 
-0.831217 0.375811 -0.409689 -0.831217 0.375811 -0.409689 255 0 0 
0.382998 -0.31221 -0.869389 0.382998 -0.31221 -0.869389 0 0 255 
-0.671143 -0.477431 -0.567121 -0.671143 -0.477431 -0.567121 255 0 0 
0.000714173 0.591675 -0.806177 0.000714173 0.591675 -0.806177 0 255 0 
-0.655715 -0.629732 -0.416504 -0.655715 -0.629732 -0.416504 255 0 0 
0.116332 -0.435044 0.892862 0.116332 -0.435044 0.892862 0 255 0 
0.654787 0.294006 0.696287 0.654787 0.294006 0.696287 0 0 255 
0.689261 -0.325937 0.647058 0.689261 -0.325937 0.647058 0 0 255 
0.838376 -0.520963 0.160387 0.838376 -0.520963 0.160387 0 0 255 
-0.761301 -0.214642 -0.611842 -0.761301 -0.214642 -0.611842 255 0 0 
0.135123 0.706852 -0.694335 0.135123 0.706852 -0.694335 0 255 0 
0.0627215 -0.708315 0.703104 0.0627215 -0.708315 0.703104 0 255 0 
0.457734 0.478434 -0.749387 0.457734 0.478434 -0.749387 0 0 255 
0.176674 -0.46922 0.865228 0.176674 -0.46922 0.865228 0 255 0 
-0.905096 0.420414 -0.0636691 -0.905096 0.420414 -0.0636691 255 0 0 
0.441067 -0.712735 -0.545406 0.441067 -0.712735 -0.545406 0 0 255 
0.334056 0.776422 -0.534393 0.334056 0.776422 -0.534393 0 0 255 
-0.582085 0.69941 -0.414731 -0.582085 0.69941 -0.414731 255 0 0 
0.541596 0.180199 -0.821098 0.541596 0.180199 -0.821098 0 0 255 
-0.278386 -0.820966 -0.498514 -0.278386 -0.820966 -0.498514 0 255 0 
0.324646 -0.930402 -0.17017 0.324646 -0.930402 -0.17017 0 255 0 
-0.402966 -0.914913 -0.0234963 -0.402966 -0.914913 -0.0234963 255 0 0 
-0.809362 -0.390275 -0.438882 -0.809362 -0.390275 -0.438882 255 0 0 
-0.684937 0.528778 0.501254 -0.684937 0.528778 0.501254 255 0 0 
0.0726018 0.510938 -0.856546 0.0726018 0.510938 -0.856546 0 255 0 
0.870175 -0.114943 0.479148 0.870175 -0.114943 0.479148 0 0 255 
-0.416661 0.540231 0.731125 -0.416661 0.540231 0.731125 255 0 0 
0.749454 0.458989 0.477125 0.749454 0.458989 0.477125 0 0 255 
-0.503112 -0.822638 -0.26485 -0.503112 -0.822638 -0.26485 255 0 0 
0.991388 -0.023925 0.128755 0.991388 -0.023925 0.128755 0 0 255 
0.187915 0.161585 -0.968802 0.187915 0.161585 -0.968802 0 255 0 
-0.718682 -0.26845 0.641429 -0.718682 -0.26845 0.641429 255 0 0 
0.489724 0.447425 -0.748319 0.489724 0.447425 -0.748319 0 0 255 
-0.500759 0.149687 0.852546 -0.500759 0.149687 0.852546 255 0 0 
-0.552291 -0.58892 -0.590041 -0.552291 -0.58892 -0.590041 255 0 0 
-0.172043 -0.930053 0.324657 -0.172043 -0.930053 0.324657 0 255 0 
-0.889826 0.0325689 0.455136 -0.889826 0.0325689 0.455136 255 0 0 
0.0406167 0.999115 -0.0109521 0.0406167 0.999115 -0.0109521 0 255 0 
-0.308031 -0.695387 0.649272 -0.308031 -0.695387 0.649272 0 255 0 
0.537717 0.78482 0.308086 0.537717 0.78482 0.308086 0 0 255 
-0.0723082 -0.607344 0.791142 -0.0723082 -0.607344 0.791142 0 255 0 
0.48812 -0.865657 -0.111253 0.48812 -0.865657 -0.111253 0 0 255 
-0.211065 -0.179636 -0.960824 -0.211065 -0.179636 -0.960824 0 255 0 
0.819355 -0.544286 -0.180028 0.819355 -0.544286 -0.180028 0 0 255 
0.121313 -0.312426 0.942164 0.121313 -0.312426 0.942164 0 255 0 
0.848145 0.131835 0.513099 0.848145 0.131835 0.513099 0 0 255 
-0.819525 -0.248457 -0.51638 -0.819525 -0.248457 -0.51638 255 0 0 
-0.408882 -0.804183 -0.431399 -0.408882 -0.804183 -0.431399 255 0 0 
-0.00246326 0.243224 -0.969967 -0.00246326 0.243224 -0.969967 0 255 0 
0.0318277 0.480502 -0.876416 0.0318277 0.480502 -0.876416 0 255 0 
-0.716938 -0.426502 0.551449 -0.716938 -0.426502 0.551449 255 0 0 
-0.740812 0.206348 0.639233 -0.740812 0.206348 0.639233 255 0 0 
-0.715712 0.354874 -0.601515 -0.715712 0.354874 -0.601515 255 0 0 
-0.121993 -0.62856 -0.768134 -0.121993 -0.62856 -0.768134 0 255 0 
-0.08079 -0.831702 0.549313 -0.08079 -0.831702 0.549313 0 255 0 
-0.332467 0.698908 0.63324 -0.332467 0.698908 0.63324 0 255 0 
0.90866 -0.386806 -0.157221 0.90866 -0.386806 -0.157221 0 0 255 
0.714043 -0.524225 0.464038 0.714043 -0.524225 0.464038 0 0 255 
-0.876329 -0.154422 -0.456291 -0.876329 -0.154422 -0.456291 255 0 0 
0.619257 -0.383501 0.685162 0.619257 -0.383501 0.685162 0 0 255 
-0.114681 -0.694309 0.710481 -0.114681 -0.694309 0.710481 0 255 0 
0.794777 -0.595401 0.117588 0.794777 -0.595401 0.117588 0 0 255 
-0.120636 0.865423 -0.486303 -0.120636 0.865423 -0.486303 0 255 0 
0.850978 -0.492564 -0.182255 0.850978 -0.492564 -0.182255 0 0 255 
-0.1163 0.226295 0.967091 -0.1163 0.226295 0.967091 0 255 0 
0.0500077 0.995003 -0.0864144 0.0500077 0.995003 -0.0864144 0 255 0 
-0.0831239 -0.299488 -0.950472 -0.0831239 -0.299488 -0.950472 0 255 0 
0.836253 -0.511365 -0.197955 0.836253 -0.511365 -0.197955 0 0 255 
-0.124715 0.821117 -0.556967 -0.124715 0.821117 -0.556967 0 255 0 
0.581968 -0.796273 -0.165115 0.581968 -0.796273 -0.165115 0 0 255 
0.443097 0.510556 -0.736883 0.443097 0.510556 -0.736883 0 0 255 
-0.22121 0.956697 0.189204 -0.22121 0.956697 0.189204 0 255 0 
-0.699187 -0.712963 0.0531156 -0.699187 -0.712963 0.0531156 255 0 0 
0.913598 0.389483 0.116801 0.913598 0.389483 0.116801 0 0 255 
-0.753256 -0.160369 -0.637877 -0.753256 -0.160369 -0.637877 255 0 0 
0.293244 -0.0981137 -0.95099 0.293244 -0.0981137 -0.95099 0 255 0 
-0.317514 0.429024 0.845649 -0.317514 0.429024 0.845649 0 255 0 
0.469917 0.811335 0.347726 0.469917 0.811335 0.347726 0 0 255 
0.381663 -0.265944 -0.885216 0.381663 -0.265944 -0.885216 0 0 255 
0.14326 0.510603 -0.847798 0.14326 0.510603 -0.847798 0 255 0 
-0.291229 -0.249558 0.923529 -0.291229 -0.249558 0.923529 0 255 0 
0.28741 0.099077 -0.95267 0.28741 0.099077 -0.95267 0 255 0 
0.669045 0.707667 0.227125 0.669045 0.707667 0.227125 0 0 255 
-0.963553 0.253446 -0.0856164 -0.963553 0.253446 -0.0856164 255 0 0 
-0.532486 0.834017 0.144481 -0.532486 0.834017 0.144481 255 0 0 
-0.797642 0.526535 -0.294156 -0.797642 0.526535 -0.294156 255 0 0 
-0.67974 -0.0933901 0.727484 -0.67974 -0.0933901 0.727484 255 0 0 
0.122444 0.566097 0.815194 0.122444 0.566097 0.815194 0 255 0 
-0.378112 0.338531 -0.861643 -0.378112 0.338531 -0.861643 255 0 0 
0.100925 0.983636 0.149244 0.100925 0.983636 0.149244 0 255 0 
0.325386 -0.614751 0.718475 0.325386 -0.614751 0.718475 0 255 0 
-0.832229 -0.55442 -0.00380347 -0.832229 -0.55442 -0.00380347 255 0 0 
-0.486816 -0.845345 0.220003 -0.486816 -0.845345 0.220003 255 0 0 
0.185175 -0.971757 -0.146285 0.185175 -0.971757 -0.146285 0 255 0 
0.21336 -0.830458 -0.514604 0.21336 -0.830458 -0.514604 0 255 0 
-0.679247 -0.383478 -0.625754 -0.679247 -0.383478 -0.625754 255 0 0 
0.479146 0.158346 -0.863334 0.479146 0.158346 -0.863334 0 0 255 
-0.173078 -0.949206 0.262778 -0.173078 -0.949206 0.262778 0 255 0 
0.239912 -0.875674 -0.419091 0.239912 -0.875674 -0.419091 0 255 0 
-0.0995059 -0.982669 0.156398 -0.0995059 -0.982669 0.156398 0 255 0 
0.399334 0.190114 -0.896877 0.399334 0.190114 -0.896877 0 0 255 
0.224878 0.0132874 -0.974296 0.224878 0.0132874 -0.974296 0 255 0 
0.927274 -0.159842 0.338546 0.927274 -0.159842 0.338546 0 0 255 
-0.484193 0.867353 0.11513 -0.484193 0.867353 0.11513 255 0 0 
0.500537 -0.354006 0.790027 0.500537 -0.354006 0.790027 0 0 255 
0.441236 0.885497 0.145624 0.441236 0.885497 0.145624 0 0 255 
-0.902103 -0.430603 0.0281112 -0.902103 -0.430603 0.0281112 255 0 0 
-0.128119 -0.613383 -0.779325 -0.128119 -0.613383 -0.779325 0 255 0 
0.3833 -0.819381 0.426259 0.3833 -0.819381 0.426259 0 0 255 
0.226555 -0.951939 -0.206118 0.226555 -0.951939 -0.206118 0 255 0 
0.250576 0.965218 -0.0746094 0.250576 0.965218 -0.0746094 0 255 0 
-0.358016 -0.728376 -0.584203 -0.358016 -0.728376 -0.584203 255 0 0 
0.647711 0.736433 -0.195286 0.647711 0.736433 -0.195286 0 0 255 
-0.33123 0.28682 -0.8989 -0.33123 0.28682 -0.8989 0 255 0 
-0.360916 0.307398 -0.88048 -0.360916 0.307398 -0.88048 255 0 0 
-0.876122 0.470967 0.102959 -0.876122 0.470967 0.102959 255 0 0 
0.0079346 0.947119 0.320784 0.0079346 0.947119 0.320784 0 255 0 
0.43859 0.817937 0.372315 0.43859 0.817937 0.372315 0 0 255 
-0.265882 -0.666371 -0.696604 -0.265882 -0.666371 -0.696604 0 255 0 
-0.177477 0.678756 0.712596 -0.177477 0.678756 0.712596 0 255 0 
0.967576 0.24517 0.0607268 0.967576 0.24517 0.0607268 0 0 255 
-0.793821 -0.539543 0.28061 -0.793821 -0.539543 0.28061 255 0 0 
0.62362 -0.725617 0.290824 0.62362 -0.725617 0.290824 0 0 255 
0.0651008 0.549101 0.833217 0.0651008 0.549101 0.833217 0 255 0 
0.242019 0.0673206 -0.967933 0.242019 0.0673206 -0.967933 0 255 0 
0.398382 -0.385111 0.832455 0.398382 -0.385111 0.832455 0 0 255 
-0.570263 0.368821 -0.73401 -0.570263 0.368821 -0.73401 255 0 0 
-0.919919 0.228719 0.31849 -0.919919 0.228719 0.31849 255 0 0 
-0.842984 -0.382026 -0.378727 -0.842984 -0.382026 -0.378727 255 0 0 
0.430768 0.658818 -0.616765 0.430768 0.658818 -0.616765 0 0 255 
0.702498 -0.187065 0.686661 0.702498 -0.187065 0.686661 0 0 255 
-0.563492 0.380972 0.733033 -0.563492 0.380972 0.733033 255 0 0 
-0.335316 -0.680034 0.65201 -0.335316 -0.680034 0.65201 255 0 0 
0.763449 -0.495168 -0.414675 0.763449 -0.495168 -0.414675 0 0 255 
-0.637534 -0.361792 -0.680188 -0.637534 -0.361792 -0.680188 255 0 0 
-0.815944 0.57398 0.0691551 -0.815944 0.57398 0.0691551 255 0 0 
0.433422 0.380403 0.816969 0.433422 0.380403 0.816969 0 0 255 
-0.699168 0.700505 0.143031 -0.699168 0.700505 0.143031 255 0 0 
-0.404166 0.695436 0.594153 -0.404166 0.695436 0.594153 255 0 0 
-0.816133 0.146183 0.559068 -0.816133 0.146183 0.559068 255 0 0 
-0.420265 -0.501361 0.756317 -0.420265 -0.501361 0.756317 255 0 0 
0.54089 0.667906 0.511215 0.54089 0.667906 0.511215 0 0 255 
0.274156 -0.147856 0.950251 0.274156 -0.147856 0.950251 0 255 0 
0.0533525 0.483419 0.873761 0.0533525 0.483419 0.873761 0 255 0 
0.499759 -0.811759 -0.302141 0.499759 -0.811759 -0.302141 0 0 255 
0.929368 -0.365226 0.0537065 0.929368 -0.365226 0.0537065 0 0 255 
-0.574734 0.625604 -0.527543 -0.574734 0.625604 -0.527543 255 0 0 
-0.871709 0.165536 -0.461217 -0.871709 0.165536 -0.461217 255 0 0 
-0.125571 -0.220568 0.967255 -0.125571 -0.220568 0.967255 0 255 0 
-0.433879 -0.344518 0.8325 -0.433879 -0.344518 0.8325 255 0 0 
-0.225571 -0.939121 0.25917 -0.225571 -0.939121 0.25917 0 255 0 
-0.156606 -0.650703 0.743007 -0.156606 -0.650703 0.743007 0 255 0 
0.0169121 0.186412 -0.982326 0.0169121 0.186412 -0.982326 0 255 0 
0.666369 -0.664325 0.338563 0.666369 -0.664325 0.338563 0 0 255 
0.681948 -0.514228 0.520113 0.681948 -0.514228 0.520113 0 0 255 
-0.382303 0.633175 0.673004 -0.382303 0.633175 0.673004 255 0 0 
0.404672 0.698093 -0.590683 0.404672 0.698093 -0.590683 0 0 255 
-0.0918688 0.863421 -0.496049 -0.0918688 0.863421 -0.496049 0 255 0 
-0.533272 -0.0321315 0.845334 -0.533272 -0.0321315 0.845334 255 0 0 
0.741648 0.171605 -0.648467 0.741648 0.171605 -0.648467 0 0 255 
-0.993525 0.102051 -0.0499421 -0.993525 0.102051 -0.0499421 255 0 0 
0.812944 -0.0675239 0.578414 0.812944 -0.0675239 0.578414 0 0 255 
-0.64324 -0.765549 0.0133441 -0.64324 -0.765549 0.0133441 255 0 0 
0.513231 -0.850116 0.117885 0.513231 -0.850116 0.117885 0 0 255 
0.655215 0.555453 0.512021 0.655215 0.555453 0.512021 0 0 255 
0.00151354 -0.0340696 0.999418 0.00151354 -0.0340696 0.999418 0 255 0 
-0.206299 -0.693687 -0.690101 -0.206299 -0.693687 -0.690101 0 255 0 
-0.78679 -0.164678 0.594847 -0.78679 -0.164678 0.594847 255 0 0 
-0.80365 -0.563431 0.191553 -0.80365 -0.563431 0.191553 255 0 0 
-0.0175781 0.322208 -0.946506 -0.0175781 0.322208 -0.946506 0 255 0 
-0.392206 0.740734 0.545424 -0.392206 0.740734 0.545424 255 0 0 
0.474685 -0.856804 0.201399 0.474685 -0.856804 0.201399 0 0 255 
0.962431 0.257454 -0.0862752 0.962431 0.257454 -0.0862752 0 0 255 
-0.213412 0.216582 0.952653 -0.213412 0.216582 0.952653 0 255 0 
-0.761996 -0.360901 0.537692 -0.761996 -0.360901 0.537692 255 0 0 
-0.411429 -0.621218 0.666944 -0.411429 -0.621218 0.666944 255 0 0 
-0.889485 -0.429825 -0.155136 -0.889485 -0.429825 -0.155136 255 0 0 
-0.776431 0.554819 0.298882 -0.776431 0.554819 0.298882 255 0 0 
-0.985482 -0.169238 0.0135205 -0.985482 -0.169238 0.0135205 255 0 0 
-0.906367 0.422489 -0.00115071 -0.906367 0.422489 -0.00115071 255 0 0 
-0.645017 -0.76112 0.0681935 -0.645017 -0.76112 0.0681935 255 0 0 
0.909002 -0.41679 -0.0014127 0.909002 -0.41679 -0.0014127 0 0 255 
-0.540142 -0.802975 -0.251947 -0.540142 -0.802975 -0.251947 255 0 0 
-0.368006 0.733614 0.571298 -0.368006 0.733614 0.571298 255 0 0 
-0.364204 -0.872579 -0.325518 -0.364204 -0.872579 -0.325518 255 0 0 
0.884652 -0.420058 -0.202342 0.884652 -0.420058 -0.202342 0 0 255 
0.716524 0.287936 -0.635363 0.716524 0.287936 -0.635363 0 0 255 
0.831617 0.475114 0.287542 0.831617 0.475114 0.287542 0 0 255 
0.870077 0.141541 -0.472157 0.870077 0.141541 -0.472157 0 0 255 
-0.14263 -0.136723 -0.980287 -0.14263 -0.136723 -0.980287 0 255 0 
-0.0355076 0.752357 -0.657798 -0.0355076 0.752357 -0.657798 0 255 0 
-0.188389 -0.829841 -0.525236 -0.188389 -0.829841 -0.525236 0 255 0 
-0.525648 0.122544 0.84183 -0.525648 0.122544 0.84183 255 0 0 
-0.716916 -0.115302 -0.687559 -0.716916 -0.115302 -0.687559 255 0 0 
-0.0772174 -0.452672 -0.888328 -0.0772174 -0.452672 -0.888328 0 255 0 
-0.107004 -0.908616 0.403693 -0.107004 -0.908616 0.403693 0 255 0 
-0.0244507 0.582014 0.812811 -0.0244507 0.582014 0.812811 0 255 0 
-0.257859 -0.635487 0.727781 -0.257859 -0.635487 0.727781 0 255 0 
0.651482 -0.749727 -0.116106 0.651482 -0.749727 -0.116106 0 0 255 
-0.58511 0.520191 0.622131 -0.58511 0.520191 0.622131 255 0 0 
0.15914 -0.350844 -0.922813 0.15914 -0.350844 -0.922813 0 255 0 
-0.646515 0.599874 -0.471348 -0.646515 0.599874 -0.471348 255 0 0 
-0.256946 0.252838 0.932766 -0.256946 0.252838 0.932766 0 255 0 
-0.490924 -0.381136 0.783409 -0.490924 -0.381136 0.783409 255 0 0 
-0.84526 0.448712 0.29016 -0.84526 0.448712 0.29016 255 0 0 
0.651293 0.702684 0.286448 0.651293 0.702684 0.286448 0 0 255 
0.474672 0.495447 0.727474 0.474672 0.495447 0.727474 0 0 255 
-0.916102 -0.153114 0.370557 -0.916102 -0.153114 0.370557 255 0 0 
0.328398 0.680388 0.655154 0.328398 0.680388 0.655154 0 255 0 
0.257527 -0.962714 0.0828336 0.257527 -0.962714 0.0828336 0 255 0 
0.210901 0.417906 -0.883671 0.210901 0.417906 -0.883671 0 255 0 
-0.739531 -0.319365 -0.592537 -0.739531 -0.319365 -0.592537 255 0 0 
0.362458 0.930579 0.0514439 0.362458 0.930579 0.0514439 0 0 255 
-0.660854 0.717915 -0.21879 -0.660854 0.717915 -0.21879 255 0 0 
-0.362097 0.330407 -0.871618 -0.362097 0.330407 -0.871618 255 0 0 
0.886135 -0.209236 -0.413504 0.886135 -0.209236 -0.413504 0 0 255 
-0.40099 0.816266 0.415832 -0.40099 0.816266 0.415832 255 0 0 
-0.442905 0.276939 0.852725 -0.442905 0.276939 0.852725 255 0 0 
-0.604298 -0.0446299 0.795508 -0.604298 -0.0446299 0.795508 255 0 0 
-0.245255 -0.511668 0.823435 -0.245255 -0.511668 0.823435 0 255 0 
-0.502443 0.419465 -0.756043 -0.502443 0.419465 -0.756043 255 0 0 
-0.538207 0.777372 -0.325618 -0.538207 0.777372 -0.325618 255 0 0 
-0.470062 0.233468 0.851196 -0.470062 0.233468 0.851196 255 0 0 
0.620914 0.00771892 0.783841 0.620914 0.00771892 0.783841 0 0 255 
-0.172004 0.867909 0.465992 -0.172004 0.867909 0.465992 0 255 0 
-0.962744 -0.254498 -0.0914087 -0.962744 -0.254498 -0.0914087 255 0 0 
0.700727 0.4704 0.536382 0.700727 0.4704 0.536382 0 0 255 
-0.384766 0.336455 -0.859508 -0.384766 0.336455 -0.859508 255 0 0 
0.0528936 0.0197704 0.998404 0.0528936 0.0197704 0.998404 0 255 0 
-0.734047 -0.309937 0.604247 -0.734047 -0.309937 0.604247 255 0 0 
0.83999 -0.477132 -0.258383 0.83999 -0.477132 -0.258383 0 0 255 
-0.118344 0.981269 0.152009 -0.118344 0.981269 0.152009 0 255 0 
-0.27139 0.704715 0.655533 -0.27139 0.704715 0.655533 0 255 0 
-0.853383 0.128733 0.50514 -0.853383 0.128733 0.50514 255 0 0 
0.8466 0.362128 0.390041 0.8466 0.362128 0.390041 0 0 255 
0.235169 0.79798 0.554909 0.235169 0.79798 0.554909 0 255 0 
0.154259 -0.23793 -0.958955 0.154259 -0.23793 -0.958955 0 255 0 
0.640348 -0.746211 0.182001 0.640348 -0.746211 0.182001 0 0 255 
0.521223 -0.791291 -0.319664 0.521223 -0.791291 -0.319664 0 0 255 
-0.409571 -0.0260096 0.911908 -0.409571 -0.0260096 0.911908 255 0 0 
-0.827846 -0.449659 0.335377 -0.827846 -0.449659 0.335377 255 0 0 
-0.15872 -0.0756938 -0.984418 -0.15872 -0.0756938 -0.984418 0 255 0 
-0.395471 0.896023 0.201857 -0.395471 0.896023 0.201857 255 0 0 
-0.921726 -0.343377 0.180315 -0.921726 -0.343377 0.180315 255 0 0 
0.176546 -0.982798 -0.0542145 0.176546 -0.982798 -0.0542145 0 255 0 
-0.145181 -0.859821 -0.48952 -0.145181 -0.859821 -0.48952 0 255 0 
-0.844317 -0.501913 -0.187649 -0.844317 -0.501913 -0.187649 255 0 0 
0.859058 0.210238 -0.466712 0.859058 0.210238 -0.466712 0 0 255 
0.690178 0.718284 0.087874 0.690178 0.718284 0.087874 0 0 255 
-0.874082 0.0351637 0.484504 -0.874082 0.0351637 0.484504 255 0 0 
-0.979664 0.0325172 0.197991 -0.979664 0.0325172 0.197991 255 0 0 
-0.912953 -0.00456908 -0.408039 -0.912953 -0.00456908 -0.408039 255 0 0 
0.422108 0.555786 -0.71619 0.422108 0.555786 -0.71619 0 0 255 
0.275475 -0.427865 -0.86084 0.275475 -0.427865 -0.86084 0 255 0 
-0.417948 -0.225427 -0.880058 -0.417948 -0.225427 -0.880058 255 0 0 
0.692556 0.150521 0.705486 0.692556 0.150521 0.705486 0 0 255 
0.210325 0.270345 -0.939509 0.210325 0.270345 -0.939509 0 255 0 
0.555828 -0.23203 0.798259 0.555828 -0.23203 0.798259 0 0 255 
-0.899235 -0.11368 -0.422438 -0.899235 -0.11368 -0.422438 255 0 0 
0.943431 -0.310447 -0.11645 0.943431 -0.310447 -0.11645 0 0 255 
-0.164658 0.514154 -0.841744 -0.164658 0.514154 -0.841744 0 255 0 
-0.0678025 0.835267 -0.545647 -0.0678025 0.835267 -0.545647 0 255 0 
-0.944725 -0.108775 0.309295 -0.944725 -0.108775 0.309295 255 0 0 
-0.545114 0.591582 0.594039 -0.545114 0.591582 0.594039 255 0 0 
0.276122 -0.208883 0.938149 0.276122 -0.208883 0.938149 0 255 0 
0.616653 0.455144 0.642327 0.616653 0.455144 0.642327 0 0 255 
-0.296069 -0.113626 -0.948384 -0.296069 -0.113626 -0.948384 0 255 0 
0.833625 0.157766 0.529319 0.833625 0.157766 0.529319 0 0 255 
0.527592 -0.849422 -0.011316 0.527592 -0.849422 -0.011316 0 0 255 
0.920672 0.178957 -0.346897 0.920672 0.178957 -0.346897 0 0 255 
0.252927 -0.750534 0.610514 0.252927 -0.750534 0.610514 0 255 0 
-0.209427 -0.957744 -0.197145 -0.209427 -0.957744 -0.197145 0 255 0 
-0.508273 -0.770448 0.384796 -0.508273 -0.770448 0.384796 255 0 0 
0.610254 0.0130998 -0.792097 0.610254 0.0130998 -0.792097 0 0 255 
-0.461099 -0.812476 0.35675 -0.461099 -0.812476 0.35675 255 0 0 
0.323221 0.936422 0.136536 0.323221 0.936422 0.136536 0 255 0 
-0.464114 -0.501829 0.729908 -0.464114 -0.501829 0.729908 255 0 0 
-0.984387 -0.14457 -0.100404 -0.984387 -0.14457 -0.100404 255 0 0 
-0.510991 -0.761599 -0.398565 -0.510991 -0.761599 -0.398565 255 0 0 
-0.0700953 0.947467 -0.312079 -0.0700953 0.947467 -0.312079 0 255 0 
-0.637315 -0.664926 0.389491 -0.637315 -0.664926 0.389491 255 0 0 
0.931207 0.309292 -0.192854 0.931207 0.309292 -0.192854 0 0 255 
0.534246 -0.751556 -0.386968 0.534246 -0.751556 -0.386968 0 0 255 
-0.532628 -0.0691152 -0.843523 -0.532628 -0.0691152 -0.843523 255 0 0 
0.100155 0.771949 0.627745 0.100155 0.771949 0.627745 0 255 0 
-0.97151 0.155427 0.178918 -0.97151 0.155427 0.178918 255 0 0 
-0.474807 0.14215 0.868534 -0.474807 0.14215 0.868534 255 0 0 
-0.655019 -0.74941 0.0966162 -0.655019 -0.74941 0.0966162 255 0 0 
0.214757 -0.00380326 -0.97666 0.214757 -0.00380326 -0.97666 0 255 0 
0.816521 0.574227 -0.0596361 0.816521 0.574227 -0.0596361 0 0 255 
-0.537695 0.842683 0.0277331 -0.537695 0.842683 0.0277331 255 0 0 
-0.130337 0.417608 -0.899231 -0.130337 0.417608 -0.899231 0 255 0 
-0.278123 0.898636 0.339265 -0.278123 0.898636 0.339265 0 255 0 
-0.0474931 0.703191 -0.709413 -0.0474931 0.703191 -0.709413 0 255 0 
-0.385695 0.0791381 -0.919226 -0.385695 0.0791381 -0.919226 255 0 0 
-0.598355 0.785483 -0.158074 -0.598355 0.785483 -0.158074 255 0 0 
0.094564 -0.913504 0.395687 0.094564 -0.913504 0.395687 0 255 0 
-0.279308 0.573545 -0.770086 -0.279308 0.573545 -0.770086 0 255 0 
-0.772157 0.275724 -0.572495 -0.772157 0.275724 -0.572495 255 0 0 
0.396869 -0.917788 -0.0126552 0.396869 -0.917788 -0.0126552 0 0 255 
-0.752793 0.430708 -0.497789 -0.752793 0.430708 -0.497789 255 0 0 
-0.923768 0.31135 -0.222965 -0.923768 0.31135 -0.222965 255 0 0 
0.332883 0.729126 -0.597967 0.332883 0.729126 -0.597967 0 255 0 
0.548907 -0.790595 0.271407 0.548907 -0.790595 0.271407 0 0 255 
-0.589715 0.681827 -0.432837 -0.589715 0.681827 -0.432837 255 0 0 
0.896652 0.361583 0.255487 0.896652 0.361583 0.255487 0 0 255 
0.625221 -0.00658829 -0.78042 0.625221 -0.00658829 -0.78042 0 0 255 
-0.150045 0.866825 0.4755 -0.150045 0.866825 0.4755 0 255 0 
0.298051 0.0894874 0.950346 0.298051 0.0894874 0.950346 0 255 0 
-0.727707 -0.381056 0.570297 -0.727707 -0.381056 0.570297 255 0 0 
0.978069 0.17767 -0.108693 0.978069 0.17767 -0.108693 0 0 255 
-0.380998 0.795358 0.471429 -0.380998 0.795358 0.471429 255 0 0 
0.819976 0.572382 0.00425064 0.819976 0.572382 0.00425064 0 0 255 
0.866673 -0.0522938 -0.496127 0.866673 -0.0522938 -0.496127 0 0 255 
-0.139316 -0.890211 0.433722 -0.139316 -0.890211 0.433722 0 255 0 
0.159157 0.92188 -0.353279 0.159157 0.92188 -0.353279 0 255 0 
0.875977 -0.430833 -0.216904 0.875977 -0.430833 -0.216904 0 0 255 
-0.522623 0.636364 -0.567368 -0.522623 0.636364 -0.567368 255 0 0 
0.765814 0.574971 0.287989 0.765814 0.574971 0.287989 0 0 255 
0.0429908 -0.665856 -0.74484 0.0429908 -0.665856 -0.74484 0 255 0 
0.511344 -0.855669 -0.0797405 0.511344 -0.855669 -0.0797405 0 0 255 
0.0630755 -0.868311 0.491993 0.0630755 -0.868311 0.491993 0 255 0 
-0.101265 0.358097 0.928177 -0.101265 0.358097 0.928177 0 255 0 
-0.914928 -0.384818 0.121744 -0.914928 -0.384818 0.121744 255 0 0 
0.251718 -0.957203 -0.142831 0.251718 -0.957203 -0.142831 0 255 0 
-0.120239 0.991292 0.0536844 -0.120239 0.991292 0.0536844 0 255 0 
0.427772 -0.823948 0.371646 0.427772 -0.823948 0.371646 0 0 255 
0.206644 0.962304 0.17683 0.206644 0.962304 0.17683 0 255 0 
-0.454561 -0.0926455 0.885884 -0.454561 -0.0926455 0.885884 255 0 0 
-0.392238 0.916164 0.0824194 -0.392238 0.916164 0.0824194 255 0 0 
-0.827872 0.377451 -0.41492 -0.827872 0.377451 -0.41492 255 0 0 
-0.471722 0.871378 -0.134829 -0.471722 0.871378 -0.134829 255 0 0 
-0.544606 -0.340795 0.766331 -0.544606 -0.340795 0.766331 255 0 0 
-0.935734 0.218083 0.277203 -0.935734 0.218083 0.277203 255 0 0 
0.461771 -0.166562 0.87122 0.461771 -0.166562 0.87122 0 0 255 
0.395011 0.146279 0.906956 0.395011 0.146279 0.906956 0 0 255 
-0.664215 -0.734585 0.138573 -0.664215 -0.734585 0.138573 255 0 0 
0.624441 0.52329 -0.579863 0.624441 0.52329 -0.579863 0 0 255 
0.613155 0.641587 -0.460877 0.613155 0.641587 -0.460877 0 0 255 
0.495265 -0.765694 0.410396 0.495265 -0.765694 0.410396 0 0 255 
0.0541276 0.604344 -0.794883 0.0541276 0.604344 -0.794883 0 255 0 
0.792768 0.547889 0.267089 0.792768 0.547889 0.267089 0 0 255 
0.858207 -0.299385 0.416952 0.858207 -0.299385 0.416952 0 0 255 
0.77648 -0.0799204 0.625053 0.77648 -0.0799204 0.625053 0 0 255 
0.352289 0.418456 0.83713 0.352289 0.418456 0.83713 0 0 255 
-0.679755 0.429085 -0.594827 -0.679755 0.429085 -0.594827 255 0 0 
0.956644 0.249204 0.150764 0.956644 0.249204 0.150764 0 0 255 
-0.44644 -0.446759 0.775305 -0.44644 -0.446759 0.775305 255 0 0 
-0.271173 0.430224 -0.86103 -0.271173 0.430224 -0.86103 0 255 0 
0.0792233 -0.924569 0.372688 0.0792233 -0.924569 0.372688 0 255 0 
-0.71723 -0.441981 0.538733 -0.71723 -0.441981 0.538733 255 0 0 
-0.865191 0.242288 0.439023 -0.865191 0.242288 0.439023 255 0 0 
0.965179 -0.132001 0.225844 0.965179 -0.132001 0.225844 0 0 255 
-0.0436303 -0.987642 0.150534 -0.0436303 -0.987642 0.150534 0 255 0 
-0.822024 -0.219128 0.525604 -0.822024 -0.219128 0.525604 255 0 0 
0.761086 0.501262 0.411685 0.761086 0.501262 0.411685 0 0 255 
-0.228864 -0.952417 0.201304 -0.228864 -0.952417 0.201304 0 255 0 
0.187238 -0.229422 -0.955148 0.187238 -0.229422 -0.955148 0 255 0 
-0.785718 0.376619 -0.490719 -0.785718 0.376619 -0.490719 255 0 0 
-0.429613 0.0683139 -0.900425 -0.429613 0.0683139 -0.900425 255 0 0 
-0.758201 0.106607 0.643247 -0.758201 0.106607 0.643247 255 0 0 
-0.3698 -0.809018 0.456878 -0.3698 -0.809018 0.456878 255 0 0 
0.377055 0.854689 0.356842 0.377055 0.854689 0.356842 0 0 255 
0.331186 -0.942803 -0.0379182 0.331186 -0.942803 -0.0379182 0 255 0 
0.591213 0.69138 0.415284 0.591213 0.69138 0.415284 0 0 255 
0.363414 -0.227673 0.90338 0.363414 -0.227673 0.90338 0 0 255 
-0.49284 -0.869171 -0.0406192 -0.49284 -0.869171 -0.0406192 255 0 0 
-0.60523 0.101351 -0.789572 -0.60523 0.101351 -0.789572 255 0 0 
-0.804486 -0.544637 -0.237009 -0.804486 -0.544637 -0.237009 255 0 0 
0.870506 0.153863 0.467488 0.870506 0.153863 0.467488 0 0 255 
-0.142265 -0.984546 -0.102122 -0.142265 -0.984546 -0.102122 0 255 0 
0.187609 0.880118 0.436113 0.187609 0.880118 0.436113 0 255 0 
-0.940708 -0.128837 -0.313798 -0.940708 -0.128837 -0.313798 255 0 0 
0.682121 0.573578 -0.453562 0.682121 0.573578 -0.453562 0 0 255 
-0.295224 -0.303794 0.905843 -0.295224 -0.303794 0.905843 0 255 0 
-0.194179 0.414974 0.888871 -0.194179 0.414974 0.888871 0 255 0 
-0.389419 0.387314 -0.835668 -0.389419 0.387314 -0.835668 255 0 0 
-0.876794 -0.342903 -0.337119 -0.876794 -0.342903 -0.337119 255 0 0 
0.373691 -0.610656 -0.698179 0.373691 -0.610656 -0.698179 0 0 255 
-0.383788 0.445469 0.808866 -0.383788 0.445469 0.808866 255 0 0 
0.0904918 -0.712461 0.695852 0.0904918 -0.712461 0.695852 0 255 0 
-0.195731 0.972362 -0.127287 -0.195731 0.972362 -0.127287 0 255 0 
0.0815517 -0.133047 -0.987749 0.0815517 -0.133047 -0.987749 0 255 0 
0.46583 -0.715431 0.520731 0.46583 -0.715431 0.520731 0 0 255 
-0.406971 -0.756147 0.512461 -0.406971 -0.756147 0.512461 255 0 0 
0.461252 -0.260713 -0.848101 0.461252 -0.260713 -0.848101 0 0 255 
0.837617 0.225406 0.497584 0.837617 0.225406 0.497584 0 0 255 
-0.442282 0.891084 0.101764 -0.442282 0.891084 0.101764 255 0 0 
-0.207356 -0.738918 -0.641096 -0.207356 -0.738918 -0.641096 0 255 0 
-0.171189 -0.916005 -0.362808 -0.171189 -0.916005 -0.362808 0 255 0 
-0.210184 -0.687678 0.694926 -0.210184 -0.687678 0.694926 0 255 0 
-0.0924647 -0.440955 0.892753 -0.0924647 -0.440955 0.892753 0 255 0 
-0.161239 0.329069 -0.930438 -0.161239 0.329069 -0.930438 0 255 0 
0.177853 0.498853 -0.848242 0.177853 0.498853 -0.848242 0 255 0 
0.365603 -0.128622 -0.921841 0.365603 -0.128622 -0.921841 0 0 255 
-0.622256 0.469787 -0.626176 -0.622256 0.469787 -0.626176 255 0 0 
-0.353419 -0.731576 0.583002 -0.353419 -0.731576 0.583002 255 0 0 
0.937326 -0.226771 0.264566 0.937326 -0.226771 0.264566 0 0 255 
0.843825 0.518654 0.137683 0.843825 0.518654 0.137683 0 0 255 
-0.696369 -0.451882 -0.55756 -0.696369 -0.451882 -0.55756 255 0 0 
0.320984 -0.793135 -0.517596 0.320984 -0.793135 -0.517596 0 255 0 
0.348869 0.829685 0.435789 0.348869 0.829685 0.435789 0 0 255 
-0.599082 0.550761 -0.581174 -0.599082 0.550761 -0.581174 255 0 0 
0.105519 0.841733 -0.529481 0.105519 0.841733 -0.529481 0 255 0 
-0.450352 0.595334 0.665403 -0.450352 0.595334 0.665403 255 0 0 
-0.303106 -0.126578 0.944513 -0.303106 -0.126578 0.944513 0 255 0 
0.0796193 -0.977682 0.194417 0.0796193 -0.977682 0.194417 0 255 0 
-0.300214 0.141121 0.943375 -0.300214 0.141121 0.943375 0 255 0 
0.267925 0.830531 -0.488298 0.267925 0.830531 -0.488298 0 255 0 
0.818986 0.424621 -0.385953 0.818986 0.424621 -0.385953 0 0 255 
-0.828474 -0.442848 -0.342808 -0.828474 -0.442848 -0.342808 255 0 0 
0.0866922 -0.933472 0.348016 0.0866922 -0.933472 0.348016 0 255 0 
0.55107 0.551279 -0.626429 0.55107 0.551279 -0.626429 0 0 255 
-0.624947 -0.411038 0.663693 -0.624947 -0.411038 0.663693 255 0 0 
-0.00584757 -0.558654 -0.82938 -0.00584757 -0.558654 -0.82938 0 255 0 
0.438317 -0.66062 -0.609475 0.438317 -0.66062 -0.609475 0 0 255 
0.640456 -0.705406 -0.303674 0.640456 -0.705406 -0.303674 0 0 255 
-0.136459 -0.60529 0.784221 -0.136459 -0.60529 0.784221 0 255 0 
-0.989731 0.0631935 0.128217 -0.989731 0.0631935 0.128217 255 0 0 
-0.121097 -0.173989 -0.977274 -0.121097 -0.173989 -0.977274 0 255 0 
0.9276 -0.364268 -0.0828744 0.9276 -0.364268 -0.0828744 0 0 255 
-0.624108 -0.0883603 -0.776326 -0.624108 -0.0883603 -0.776326 255 0 0 
-0.843013 -0.535491 0.0507726 -0.843013 -0.535491 0.0507726 255 0 0 
-0.398588 0.745874 0.533666 -0.398588 0.745874 0.533666 255 0 0 
0.584065 0.710754 -0.392041 0.584065 0.710754 -0.392041 0 0 255 
0.182345 0.652771 -0.735282 0.182345 0.652771 -0.735282 0 255 0 
0.678406 0.683599 -0.26918 0.678406 0.683599 -0.26918 0 0 255 
0.213216 0.0163419 -0.976869 0.213216 0.0163419 -0.976869 0 255 0 
-0.125631 -0.989262 0.0746817 -0.125631 -0.989262 0.0746817 0 255 0 
-0.0846271 0.15555 -0.984196 -0.0846271 0.15555 -0.984196 0 255 0 
0.0943819 0.496874 0.862675 0.0943819 0.496874 0.862675 0 255 0 
0.864631 0.294895 -0.406757 0.864631 0.294895 -0.406757 0 0 255 
0.523351 0.613712 0.591152 0.523351 0.613712 0.591152 0 0 255 
-0.4957 0.868461 -0.00758392 -0.4957 0.868461 -0.00758392 255 0 0 
-0.428296 0.290075 -0.855815 -0.428296 0.290075 -0.855815 255 0 0 
0.84068 -0.506847 -0.190693 0.84068 -0.506847 -0.190693 0 0 255 
-0.64156 -0.107998 -0.759432 -0.64156 -0.107998 -0.759432 255 0 0 
0.896823 -0.0382256 -0.440735 0.896823 -0.0382256 -0.440735 0 0 255 
-0.0538378 -0.697487 -0.714573 -0.0538378 -0.697487 -0.714573 0 255 0 
0.555943 -0.718754 0.417516 0.555943 -0.718754 0.417516 0 0 255 
-0.0430759 0.98676 0.156365 -0.0430759 0.98676 0.156365 0 255 0 
-0.984405 0.159651 -0.0738741 -0.984405 0.159651 -0.0738741 255 0 0 
0.161414 0.725316 0.669226 0.161414 0.725316 0.669226 0 255 0 
-0.607164 0.793848 -0.0340128 -0.607164 0.793848 -0.0340128 255 0 0 
-0.848986 -0.523841 -0.0693788 -0.848986 -0.523841 -0.0693788 255 0 0 
-0.261454 -0.00879553 0.965176 -0.261454 -0.00879553 0.965176 0 255 0 
0.00966993 -0.0547572 0.998453 0.00966993 -0.0547572 0.998453 0 255 0 
-0.40985 0.373674 0.8321 -0.40985 0.373674 0.8321 255 0 0 
0.994889 0.0916547 0.0423614 0.994889 0.0916547 0.0423614 0 0 255 
0.121597 0.556605 -0.82183 0.121597 0.556605 -0.82183 0 255 0 
-0.907003 -0.377213 0.187232 -0.907003 -0.377213 0.187232 255 0 0 
0.803764 -0.261452 -0.534422 0.803764 -0.261452 -0.534422 0 0 255 
0.0190369 -0.0987269 0.994932 0.0190369 -0.0987269 0.994932 0 255 0 
0.228407 -0.48402 -0.844722 0.228407 -0.48402 -0.844722 0 255 0 
0.0545017 0.848183 0.526892 0.0545017 0.848183 0.526892 0 255 0 
-0.670934 -0.677996 -0.30028 -0.670934 -0.677996 -0.30028 255 0 0 
0.135368 0.923249 0.359565 0.135368 0.923249 0.359565 0 255 0 
